ncols 166
nrows 32
xllcorner 2492746.5
yllcorner 1121069.5
cellsize 0.5
438.21600341796875 438.21600341796875 438.1709899902344 438.21600341796875 438.197998046875 438.1839904785156 438.2030029296875 438.1990051269531 438.2460021972656 438.2850036621094 438.281005859375 438.29998779296875 438.3039855957031 438.3110046386719 438.3500061035156 438.3529968261719 438.36199951171875 438.3680114746094 438.3699951171875 438.3789978027344 438.3699951171875 438.3059997558594 438.4079895019531 438.3869934082031 438.3840026855469 438.3789978027344 438.40399169921875 437.72601318359375 436.7760009765625 436.65399169921875 436.3039855957031 436.1969909667969 436.197998046875 436.2019958496094 436.2120056152344 436.2200012207031 436.2030029296875 436.1929931640625 436.1960144042969 436.22601318359375 437.9490051269531 440.60101318359375 440.71600341796875 440.8479919433594 440.9739990234375 441.0769958496094 441.2090148925781 441.33099365234375 441.48699951171875 441.6189880371094 441.74700927734375 441.87200927734375 442.02398681640625 442.1409912109375 442.2619934082031 442.3819885253906 442.5159912109375 442.5849914550781 442.5150146484375 442.3919982910156 442.260986328125 442.1300048828125 442.01800537109375 441.8489990234375 441.7239990234375 441.5790100097656 441.489990234375 441.33599853515625 441.23199462890625 441.1029968261719 440.9469909667969 440.8389892578125 440.7179870605469 440.510986328125 440.8789978027344 439.7749938964844 439.87200927734375 439.8550109863281 443.3760070800781 443.32000732421875 443.8219909667969 443.34100341796875 443.3710021972656 442.74798583984375 439.8940124511719 439.85198974609375 439.8550109863281 437.0790100097656 436.57598876953125 436.85400390625 437.2200012207031 438.7279968261719 443.6659851074219 443.7860107421875 443.86700439453125 443.94500732421875 443.99700927734375 444.0690002441406 444.14300537109375 444.1990051269531 444.2799987792969 444.385009765625 444.4309997558594 444.4939880371094 444.55999755859375 444.6709899902344 444.7449951171875 444.7869873046875 444.8599853515625 444.9440002441406 444.885986328125 444.802001953125 444.7279968261719 444.67999267578125 444.5929870605469 444.50299072265625 444.42999267578125 444.385986328125 444.3169860839844 444.22100830078125 444.16400146484375 444.1029968261719 444.02801513671875 443.94500732421875 443.8559875488281 443.8030090332031 443.71099853515625 436.8699951171875 442.4800109863281 442.53900146484375 442.5929870605469 442.6719970703125 442.7430114746094 442.8169860839844 442.8819885253906 442.9540100097656 443.02801513671875 443.10101318359375 443.1940002441406 443.25 443.3420104980469 443.4100036621094 443.4729919433594 443.5589904785156 443.64898681640625 443.67999267578125 436.74798583984375 436.7250061035156 436.75201416015625 436.7359924316406 436.7250061035156 436.7330017089844 436.74200439453125 436.7449951171875 438.4639892578125 438.5060119628906 438.5719909667969 438.6080017089844 438.6940002441406 438.6990051269531 438.6260070800781 436.7070007324219 436.7090148925781 436.71099853515625 436.6809997558594 436.6679992675781
438.2070007324219 438.1629943847656 438.1449890136719 438.1520080566406 438.1619873046875 438.1669921875 438.1709899902344 438.1759948730469 438.16900634765625 438.21600341796875 438.24798583984375 438.2409973144531 438.27801513671875 438.2659912109375 438.322998046875 438.31201171875 438.33599853515625 438.3080139160156 438.33099365234375 438.3089904785156 438.3349914550781 438.3179931640625 438.3190002441406 438.36700439453125 438.3320007324219 438.3710021972656 438.38299560546875 438.3869934082031 436.64801025390625 436.51300048828125 436.2449951171875 436.2040100097656 436.20599365234375 436.20098876953125 436.21099853515625 436.22198486328125 436.21600341796875 436.22198486328125 436.2179870605469 436.2539978027344 438.2550048828125 440.62701416015625 440.7690124511719 440.864990234375 440.9750061035156 441.13299560546875 441.2770080566406 441.40399169921875 441.5320129394531 441.61199951171875 441.80499267578125 441.8810119628906 442.02899169921875 442.16400146484375 442.2909851074219 442.38800048828125 442.5350036621094 442.5710144042969 442.468994140625 442.33099365234375 442.2130126953125 442.0840148925781 441.94500732421875 441.802001953125 441.69000244140625 441.5790100097656 441.4670104980469 441.3160095214844 441.1470031738281 441.0369873046875 440.9119873046875 440.7770080566406 440.6990051269531 440.4909973144531 439.84698486328125 439.8429870605469 439.8869934082031 440.3039855957031 443.35198974609375 443.3450012207031 443.3370056152344 443.3869934082031 443.3340148925781 442.7650146484375 439.8179931640625 439.7969970703125 436.8630065917969 436.989013671875 436.822998046875 436.8599853515625 436.9639892578125 436.8890075683594 443.74200439453125 443.8280029296875 443.90399169921875 443.9620056152344 444.0150146484375 444.0880126953125 444.1679992675781 444.2130126953125 444.2879943847656 444.3890075683594 444.4620056152344 444.5119934082031 444.59600830078125 444.6570129394531 444.7090148925781 444.7900085449219 444.8909912109375 444.9630126953125 444.8710021972656 444.8009948730469 444.7170104980469 444.6600036621094 444.572998046875 444.4909973144531 444.42999267578125 444.3789978027344 444.2850036621094 444.218994140625 444.156005859375 444.0899963378906 443.98699951171875 443.9119873046875 443.8550109863281 443.7820129394531 443.61700439453125 442.29998779296875 442.48199462890625 442.53900146484375 442.60400390625 442.6709899902344 442.77398681640625 442.8689880371094 442.9169921875 443.0039978027344 443.0570068359375 443.125 443.2099914550781 443.2959899902344 443.3489990234375 443.4219970703125 443.5 443.5679931640625 443.6549987792969 443.66900634765625 436.7349853515625 436.7380065917969 436.739013671875 436.7460021972656 436.7349853515625 436.7460021972656 436.74798583984375 436.7409973144531 436.760986328125 438.4259948730469 438.4460144042969 438.4849853515625 438.572998046875 438.5740051269531 438.24700927734375 436.7130126953125 436.7099914550781 436.7019958496094 436.6839904785156 436.6600036621094
438.1669921875 438.15399169921875 438.10198974609375 438.1520080566406 438.1470031738281 438.13299560546875 438.1390075683594 438.12799072265625 438.1499938964844 438.16900634765625 438.1839904785156 438.2049865722656 438.2250061035156 438.2330017089844 438.2909851074219 438.3630065917969 438.2590026855469 438.2640075683594 438.27801513671875 438.27801513671875 438.23199462890625 438.2489929199219 438.2860107421875 438.3059997558594 438.27899169921875 438.2829895019531 438.281005859375 438.3330078125 437.28900146484375 436.52301025390625 436.2359924316406 436.2019958496094 436.20001220703125 436.2019958496094 436.2179870605469 436.2090148925781 436.2130126953125 436.22698974609375 436.20599365234375 436.260986328125 438.4209899902344 440.6839904785156 440.7909851074219 440.92401123046875 441.0329895019531 441.1409912109375 441.3039855957031 441.4549865722656 441.55999755859375 441.6549987792969 441.7959899902344 441.9230041503906 442.0830078125 442.16400146484375 442.2950134277344 442.4179992675781 442.5379943847656 442.59100341796875 442.4330139160156 442.2900085449219 442.2030029296875 442.0539855957031 441.97601318359375 441.7959899902344 441.6659851074219 441.52301025390625 441.4219970703125 441.31201171875 441.1499938964844 440.9960021972656 440.885009765625 440.7659912109375 440.6369934082031 440.6210021972656 440.8760070800781 439.86199951171875 439.8689880371094 440.75799560546875 443.3590087890625 443.3659973144531 443.3580017089844 443.3529968261719 442.84100341796875 442.7619934082031 439.7959899902344 439.8399963378906 439.8500061035156 436.4460144042969 436.7200012207031 436.8370056152344 436.96099853515625 436.8890075683594 443.7569885253906 443.8080139160156 443.8789978027344 443.9530029296875 444.02099609375 444.1029968261719 444.1789855957031 444.25201416015625 444.3389892578125 444.406005859375 444.4460144042969 444.5270080566406 444.614013671875 444.7229919433594 444.74798583984375 444.822998046875 444.8919982910156 444.9859924316406 444.8479919433594 444.7569885253906 444.7149963378906 444.6050109863281 444.5559997558594 444.47698974609375 444.4309997558594 444.3420104980469 444.25299072265625 444.1910095214844 444.1440124511719 444.0589904785156 443.9729919433594 443.92999267578125 443.8190002441406 443.7659912109375 443.5870056152344 442.447998046875 442.5050048828125 442.54400634765625 442.635009765625 442.7049865722656 442.79998779296875 442.8479919433594 442.89898681640625 442.9849853515625 443.0580139160156 443.15899658203125 443.1929931640625 443.302001953125 443.3900146484375 443.4440002441406 443.5169982910156 443.5849914550781 443.6910095214844 440.1839904785156 436.75 436.7309875488281 436.7439880371094 436.7460021972656 436.697998046875 436.73699951171875 436.7430114746094 436.7489929199219 436.7669982910156 436.7460021972656 436.75 436.7349853515625 438.427001953125 438.4360046386719 436.6919860839844 436.72100830078125 436.6889953613281 436.6889953613281 436.6759948730469 436.64898681640625
438.1369934082031 438.1050109863281 438.1029968261719 438.10198974609375 438.1210021972656 438.0840148925781 438.0780029296875 438.0589904785156 438.0790100097656 438.114013671875 438.12799072265625 438.15899658203125 438.1969909667969 438.1990051269531 438.3380126953125 438.3340148925781 438.14599609375 438.1940002441406 438.1940002441406 438.2239990234375 438.23699951171875 438.2449951171875 438.2550048828125 438.24200439453125 438.2760009765625 438.260986328125 438.24700927734375 438.2460021972656 437.4630126953125 436.37298583984375 436.22100830078125 436.19500732421875 436.19500732421875 436.2049865722656 436.2179870605469 436.2179870605469 436.21600341796875 436.22601318359375 436.2170104980469 436.2449951171875 438.8389892578125 440.6940002441406 440.83099365234375 440.95098876953125 441.0690002441406 441.20599365234375 441.3320007324219 441.4679870605469 441.6159973144531 441.7200012207031 441.8399963378906 441.9630126953125 442.1080017089844 442.20599365234375 442.35101318359375 442.52301025390625 442.5849914550781 442.5690002441406 442.4200134277344 442.32000732421875 442.1700134277344 442.0570068359375 441.9110107421875 441.7770080566406 441.64599609375 441.51800537109375 441.39801025390625 441.2770080566406 441.1260070800781 440.9930114746094 440.84100341796875 440.7250061035156 440.5929870605469 440.718994140625 440.8760070800781 439.76800537109375 439.7229919433594 439.8699951171875 440.7200012207031 443.4880065917969 443.52899169921875 443.48199462890625 442.8340148925781 442.67999267578125 439.8240051269531 439.67498779296875 436.4159851074219 436.4360046386719 436.65899658203125 436.7969970703125 436.885986328125 436.8909912109375 443.77398681640625 443.85699462890625 444.0159912109375 444.010986328125 444.0780029296875 444.13800048828125 444.1789855957031 444.2349853515625 444.34698486328125 444.4110107421875 444.48199462890625 444.5769958496094 444.6289978027344 444.6759948730469 444.7640075683594 444.8550109863281 444.95001220703125 444.9289855957031 444.8550109863281 444.760986328125 444.69000244140625 444.6199951171875 444.5740051269531 444.47100830078125 444.40899658203125 444.3280029296875 444.27099609375 444.18701171875 444.1189880371094 444.0409851074219 443.9599914550781 443.9179992675781 443.8089904785156 443.7650146484375 436.8739929199219 442.47198486328125 442.5190124511719 442.59600830078125 442.65399169921875 442.7250061035156 442.8160095214844 442.8630065917969 442.95098876953125 443.02801513671875 443.10198974609375 443.18499755859375 443.2460021972656 443.3169860839844 443.375 443.4410095214844 443.5220031738281 443.6059875488281 443.67999267578125 436.7489929199219 436.74700927734375 436.7439880371094 436.74200439453125 436.7510070800781 436.7539978027344 436.7409973144531 436.73699951171875 436.7449951171875 436.74798583984375 436.7510070800781 436.77801513671875 436.75299072265625 436.73199462890625 436.72698974609375 436.7330017089844 436.7340087890625 436.718994140625 436.7099914550781 436.68701171875 436.69000244140625
438.1080017089844 438.0870056152344 438.0610046386719 438.0849914550781 438.0610046386719 438.0530090332031 438.0530090332031 438.052001953125 438.0719909667969 438.0589904785156 438.0820007324219 438.10101318359375 438.14599609375 438.135986328125 438.3089904785156 438.3139953613281 438.2619934082031 438.1830139160156 438.1510009765625 438.1600036621094 438.1050109863281 438.1709899902344 438.17999267578125 438.22100830078125 438.21099853515625 438.1889953613281 438.18499755859375 438.1990051269531 438.2019958496094 436.2569885253906 436.2250061035156 436.18701171875 436.1940002441406 436.1940002441406 436.2139892578125 436.2229919433594 436.2239990234375 436.22601318359375 436.2380065917969 436.8320007324219 440.572998046875 440.7359924316406 440.85198974609375 440.9750061035156 441.0899963378906 441.2380065917969 441.37799072265625 441.5060119628906 441.60198974609375 441.7359924316406 441.85400390625 442.010986328125 442.14801025390625 442.25299072265625 442.37701416015625 442.5260009765625 442.59600830078125 442.552001953125 442.3970031738281 442.260986328125 442.1289978027344 442.0140075683594 441.8970031738281 441.75299072265625 441.6059875488281 441.47698974609375 441.364013671875 441.1830139160156 441.072998046875 440.9540100097656 440.80999755859375 440.6919860839844 440.489990234375 440.7950134277344 440.8689880371094 439.8240051269531 439.822998046875 439.93798828125 441.8429870605469 443.47100830078125 442.28399658203125 442.3630065917969 443.57000732421875 443.4549865722656 439.75201416015625 439.8529968261719 436.3689880371094 436.60400390625 436.6960144042969 436.8139953613281 436.8739929199219 436.85699462890625 436.906005859375 436.9079895019531 444.00201416015625 443.99700927734375 444.0889892578125 444.2179870605469 444.27099609375 444.3479919433594 444.39300537109375 444.4419860839844 444.5090026855469 444.572998046875 444.64599609375 444.7200012207031 444.8039855957031 444.8559875488281 444.97100830078125 444.90399169921875 444.8039855957031 444.7569885253906 444.6889953613281 444.5929870605469 444.5360107421875 444.47900390625 444.3970031738281 444.31500244140625 444.2179870605469 444.15399169921875 444.09698486328125 444.01300048828125 443.9429931640625 443.89599609375 443.80499267578125 443.7330017089844 442.3909912109375 442.47601318359375 442.531005859375 442.5799865722656 442.6700134277344 442.75201416015625 442.8110046386719 442.9219970703125 442.95599365234375 443.0450134277344 443.1210021972656 443.1929931640625 443.2650146484375 443.32000732421875 443.3909912109375 443.4639892578125 443.5450134277344 443.6830139160156 443.6400146484375 436.7250061035156 436.76300048828125 436.7380065917969 436.74700927734375 436.75299072265625 436.739990234375 436.72698974609375 436.74700927734375 436.739013671875 436.74700927734375 436.74700927734375 436.7659912109375 436.74700927734375 436.70001220703125 436.7239990234375 436.7380065917969 436.7380065917969 436.68701171875 436.6839904785156 436.6929931640625 436.6860046386719
438.0719909667969 438.0570068359375 438.0419921875 438.0199890136719 438.04400634765625 438.0360107421875 438.0249938964844 438.0270080566406 438.010009765625 438.0400085449219 438.0409851074219 438.0459899902344 438.0710144042969 438.06298828125 438.1659851074219 438.1990051269531 438.23699951171875 438.1520080566406 438.1340026855469 438.1319885253906 438.1159973144531 438.13299560546875 438.12200927734375 438.15899658203125 438.1579895019531 438.1470031738281 438.1629943847656 438.1669921875 438.16900634765625 436.3030090332031 436.2489929199219 436.2080078125 436.2070007324219 436.20599365234375 436.2250061035156 436.2200012207031 436.22698974609375 436.2239990234375 436.2380065917969 436.23199462890625 440.61700439453125 440.7659912109375 440.843994140625 441.02398681640625 441.1809997558594 441.28900146484375 441.39898681640625 441.5530090332031 441.6579895019531 441.7959899902344 441.9419860839844 442.0220031738281 442.125 442.2950134277344 442.4490051269531 442.5790100097656 442.6059875488281 442.4960021972656 442.3999938964844 442.25799560546875 442.1159973144531 441.9989929199219 441.8500061035156 441.7030029296875 441.5769958496094 441.4620056152344 441.3599853515625 441.1910095214844 441.09600830078125 440.94500732421875 440.7760009765625 440.69000244140625 440.5270080566406 440.84100341796875 439.8919982910156 439.8340148925781 439.8819885253906 440.6000061035156 443.53900146484375 443.59100341796875 442.3299865722656 442.531005859375 442.7850036621094 443.4219970703125 440.6830139160156 440.6619873046875 436.37799072265625 436.52899169921875 436.8940124511719 437.0669860839844 436.8710021972656 436.8970031738281 436.8869934082031 436.8970031738281 436.9159851074219 436.91400146484375 436.9169921875 436.8760070800781 436.9049987792969 444.2909851074219 444.4320068359375 444.4960021972656 444.5450134277344 444.6629943847656 444.7120056152344 444.7929992675781 444.8389892578125 444.9049987792969 445.00201416015625 444.8970031738281 444.8450012207031 444.7380065917969 444.6650085449219 444.5740051269531 444.5299987792969 444.44000244140625 444.364013671875 444.29400634765625 444.2239990234375 444.14898681640625 444.0679931640625 444.0329895019531 443.9309997558594 443.86700439453125 443.781005859375 443.66900634765625 442.3219909667969 442.4859924316406 442.54400634765625 442.6109924316406 442.72100830078125 442.7659912109375 442.8320007324219 442.88800048828125 442.9679870605469 443.05999755859375 443.1109924316406 443.1969909667969 443.26300048828125 443.3550109863281 443.4410095214844 443.49200439453125 443.5920104980469 443.6789855957031 443.6789855957031 436.73699951171875 436.7669982910156 436.7449951171875 436.760986328125 436.7560119628906 436.75799560546875 436.7460021972656 436.74798583984375 436.75799560546875 436.74200439453125 436.7460021972656 436.7340087890625 436.72900390625 436.7380065917969 436.7229919433594 436.739013671875 436.7279968261719 436.73199462890625 436.7120056152344 436.70001220703125 436.6830139160156
438.0459899902344 438.0429992675781 438.0299987792969 438.0190124511719 437.9800109863281 437.9590148925781 437.9570007324219 437.9909973144531 437.91900634765625 437.9880065917969 437.97601318359375 438.00201416015625 438.00299072265625 438 438.0419921875 438.20001220703125 438.19500732421875 438.0920104980469 438.0820007324219 438.0889892578125 438.09100341796875 438.10101318359375 438.0870056152344 438.11700439453125 438.1260070800781 438.0950012207031 438.114990234375 438.12298583984375 438.125 437.2860107421875 436.6679992675781 436.2139892578125 436.1940002441406 436.2139892578125 436.2250061035156 436.2250061035156 436.2380065917969 436.2340087890625 436.2380065917969 436.23699951171875 440.6369934082031 440.7510070800781 440.8949890136719 441.0400085449219 441.1549987792969 441.2690124511719 441.4309997558594 441.552001953125 441.677001953125 441.84100341796875 441.9630126953125 442.0780029296875 442.2179870605469 442.32501220703125 442.4729919433594 442.6099853515625 442.60699462890625 442.4800109863281 442.36199951171875 442.2019958496094 442.08099365234375 441.9360046386719 441.8320007324219 441.6940002441406 441.5559997558594 441.4070129394531 441.3139953613281 441.1700134277344 441.02801513671875 440.8940124511719 440.781005859375 440.64599609375 440.375 439.69500732421875 439.7279968261719 439.8760070800781 440.7170104980469 443.34600830078125 443.35699462890625 443.4549865722656 443.510986328125 442.74798583984375 443.47698974609375 440.718994140625 440.7449951171875 440.6659851074219 436.36199951171875 436.59600830078125 437.40399169921875 437.7460021972656 437.5820007324219 436.9460144042969 436.9100036621094 436.9110107421875 436.9079895019531 436.93798828125 436.9119873046875 436.90899658203125 436.9169921875 436.9100036621094 436.9049987792969 436.9209899902344 436.927001953125 444.6080017089844 444.7080078125 444.7690124511719 444.86199951171875 444.9339904785156 445.02899169921875 444.8810119628906 444.8089904785156 444.7239990234375 444.635986328125 444.58099365234375 444.5220031738281 444.42999267578125 444.3340148925781 444.2850036621094 444.2130126953125 444.1319885253906 444.06298828125 443.9729919433594 443.9169921875 443.8370056152344 443.7669982910156 443.4630126953125 442.2860107421875 442.50799560546875 442.57000732421875 442.6440124511719 442.72698974609375 442.7959899902344 442.8689880371094 442.9330139160156 443.0169982910156 443.0690002441406 443.14801025390625 443.2080078125 443.29998779296875 443.3599853515625 443.4580078125 443.5249938964844 443.60101318359375 443.6889953613281 436.75299072265625 436.7380065917969 436.7619934082031 436.7250061035156 436.7650146484375 436.7590026855469 436.75799560546875 436.72198486328125 436.7669982910156 436.77398681640625 436.7699890136719 436.7359924316406 436.72900390625 436.7340087890625 436.7409973144531 436.7439880371094 436.75 436.7430114746094 436.74200439453125 436.7149963378906 436.70098876953125 436.6789855957031
438.0150146484375 437.9700012207031 437.9729919433594 437.97198486328125 437.9540100097656 437.9530029296875 437.9570007324219 437.92498779296875 437.9429931640625 437.93798828125 437.92401123046875 437.9530029296875 437.9679870605469 437.97900390625 438.0350036621094 438.1610107421875 438.10101318359375 438.03399658203125 438.0270080566406 438.03900146484375 438.0199890136719 438.031005859375 438.0169982910156 438.0530090332031 438.0480041503906 438.0610046386719 438.04901123046875 438.08599853515625 438.06500244140625 438.1050109863281 436.47100830078125 436.2239990234375 436.2139892578125 436.22100830078125 436.2070007324219 436.22601318359375 436.2279968261719 436.2439880371094 436.239990234375 440.4800109863281 440.677001953125 440.7980041503906 440.9159851074219 441.0639953613281 441.2070007324219 441.3169860839844 441.4649963378906 441.5880126953125 441.7669982910156 441.8399963378906 441.9549865722656 442.1000061035156 442.20001220703125 442.34600830078125 442.4909973144531 442.5920104980469 442.5929870605469 442.43701171875 442.3110046386719 442.1960144042969 442.05499267578125 441.95599365234375 441.822998046875 441.6579895019531 441.55999755859375 441.4119873046875 441.2650146484375 441.1199951171875 441.0050048828125 440.8630065917969 440.7330017089844 440.5929870605469 440.35699462890625 439.8179931640625 439.8370056152344 439.7909851074219 443.3169860839844 443.35699462890625 443.364013671875 443.3550109863281 443.3550109863281 442.8399963378906 443.4840087890625 439.8340148925781 439.7929992675781 439.8689880371094 438.385986328125 436.6159973144531 438.5509948730469 438.875 438.45001220703125 437.81500244140625 437.73699951171875 437.93499755859375 437.95001220703125 437.7489929199219 436.90899658203125 436.94000244140625 436.92999267578125 436.91900634765625 436.9100036621094 436.90899658203125 436.9259948730469 436.9110107421875 436.91900634765625 436.9150085449219 437.156005859375 437.4129943847656 444.9670104980469 444.864990234375 444.8059997558594 444.7139892578125 444.6549987792969 444.5840148925781 444.5150146484375 444.39898681640625 444.3559875488281 444.2550048828125 444.1789855957031 444.135986328125 444.0260009765625 443.9620056152344 443.89898681640625 443.8219909667969 443.7359924316406 442.0320129394531 442.4440002441406 442.5039978027344 442.5820007324219 442.6579895019531 442.7449951171875 442.8320007324219 442.87298583984375 442.9580078125 443.0090026855469 443.09698486328125 443.1419982910156 443.218994140625 443.3089904785156 443.38800048828125 443.4469909667969 443.5069885253906 443.59100341796875 443.6579895019531 436.7969970703125 436.76300048828125 436.7659912109375 436.7650146484375 436.760986328125 436.7669982910156 436.7560119628906 436.760986328125 436.7669982910156 436.77099609375 436.760986328125 436.7460021972656 436.739013671875 436.75201416015625 436.75201416015625 436.74700927734375 436.7569885253906 436.7560119628906 436.72198486328125 436.7349853515625 436.72100830078125 436.7040100097656
438 437.9800109863281 437.9639892578125 437.9490051269531 437.9419860839844 437.9230041503906 437.906005859375 437.9129943847656 437.9070129394531 437.87799072265625 437.8840026855469 437.9070129394531 437.8900146484375 437.9010009765625 437.9320068359375 438.031005859375 438.09100341796875 438.0090026855469 437.9620056152344 437.9670104980469 437.99798583984375 437.968994140625 437.9960021972656 437.989013671875 438.0119934082031 438.0249938964844 437.989013671875 438.0060119628906 438.0119934082031 438.1449890136719 436.2969970703125 436.2099914550781 436.218994140625 436.22100830078125 436.2239990234375 436.218994140625 436.2380065917969 436.2409973144531 436.2340087890625 440.552001953125 440.68798828125 440.8110046386719 440.9440002441406 441.08099365234375 441.2409973144531 441.34698486328125 441.48699951171875 441.6130065917969 441.7340087890625 441.8810119628906 442.00299072265625 442.1180114746094 442.2510070800781 442.37298583984375 442.531005859375 442.6199951171875 442.53900146484375 442.4169921875 442.2799987792969 442.16900634765625 442.01300048828125 441.8810119628906 441.7799987792969 441.6440124511719 441.5159912109375 441.3909912109375 441.2489929199219 441.114990234375 440.9989929199219 440.8580017089844 440.7279968261719 440.5639953613281 440.46600341796875 440.7120056152344 439.7309875488281 439.9010009765625 443.3290100097656 443.35198974609375 443.3280029296875 443.35400390625 443.37200927734375 442.79901123046875 442.63800048828125 439.86199951171875 439.87799072265625 439.06201171875 439.22900390625 440.7489929199219 440.41900634765625 440.3059997558594 440.21099853515625 436.9020080566406 438.7569885253906 439.0719909667969 439.0459899902344 438.8340148925781 438.3819885253906 437.7300109863281 436.97100830078125 436.9410095214844 436.89599609375 436.9169921875 436.9010009765625 436.89801025390625 436.9070129394531 436.8970031738281 436.8940124511719 437.67498779296875 436.9320068359375 436.9150085449219 436.91900634765625 436.9280090332031 443.7969970703125 444.5929870605469 444.4930114746094 444.42401123046875 444.3529968261719 444.2820129394531 444.1929931640625 444.11199951171875 444.02899169921875 443.9700012207031 443.8940124511719 443.78399658203125 443.7099914550781 436.8340148925781 442.4729919433594 442.5899963378906 442.614990234375 442.6830139160156 442.76300048828125 442.8330078125 442.8760070800781 442.9679870605469 443.02801513671875 443.1189880371094 443.1809997558594 443.2439880371094 443.3340148925781 443.3789978027344 443.46600341796875 443.55999755859375 443.6419982910156 443.6659851074219 439.0429992675781 436.7720031738281 436.77099609375 436.7720031738281 436.77801513671875 436.74700927734375 436.7569885253906 436.7619934082031 436.760009765625 436.75799560546875 436.75201416015625 436.7510070800781 436.7619934082031 436.7560119628906 436.74200439453125 436.7550048828125 436.7590026855469 436.760986328125 436.760986328125 436.7380065917969 436.739990234375 436.7349853515625
438.0790100097656 438.0350036621094 438.02899169921875 437.9570007324219 437.9580078125 437.9020080566406 437.9079895019531 437.89599609375 437.8869934082031 437.8970031738281 437.87701416015625 437.875 437.864990234375 437.84100341796875 437.9159851074219 437.99200439453125 438.0740051269531 438.0260009765625 437.93701171875 437.93701171875 437.92401123046875 437.9389953613281 437.9519958496094 437.93798828125 437.9540100097656 437.9739990234375 437.9549865722656 437.97601318359375 437.99798583984375 438.06298828125 438.0119934082031 436.24700927734375 436.22198486328125 436.2179870605469 436.218994140625 436.2349853515625 436.2359924316406 436.2330017089844 436.239990234375 440.5790100097656 440.7330017089844 440.8739929199219 440.9939880371094 441.1189880371094 441.22900390625 441.3760070800781 441.46099853515625 441.61700439453125 441.75299072265625 441.885986328125 442.0169982910156 442.12701416015625 442.2380065917969 442.3789978027344 442.51800537109375 442.5989990234375 442.54998779296875 442.35699462890625 442.21099853515625 442.12200927734375 442.0190124511719 441.8580017089844 441.72601318359375 441.6090087890625 441.47698974609375 441.343994140625 441.2300109863281 441.1000061035156 440.9440002441406 440.8280029296875 440.6960144042969 440.4750061035156 440.760009765625 439.8039855957031 439.843994140625 439.81201171875 443.3580017089844 443.57501220703125 443.77899169921875 443.3420104980469 443.3210144042969 442.7569885253906 439.8179931640625 439.8169860839844 439.48199462890625 436.5459899902344 440.6520080566406 440.7300109863281 440.75201416015625 440.43798828125 440.4280090332031 440.427001953125 440.4119873046875 440.37799072265625 440.10198974609375 439.9960021972656 439.97698974609375 438.2820129394531 437.3179931640625 436.927001953125 436.8580017089844 436.864013671875 436.8739929199219 436.8819885253906 436.8810119628906 436.885986328125 436.88800048828125 436.885986328125 436.9119873046875 436.8999938964844 436.90399169921875 436.94000244140625 436.9460144042969 436.9620056152344 436.9679870605469 436.97900390625 441.0350036621094 444.2869873046875 444.15899658203125 444.135009765625 444.0469970703125 443.989013671875 443.8949890136719 443.79400634765625 443.7120056152344 436.85101318359375 436.8760070800781 440.34600830078125 442.5799865722656 442.7200012207031 442.8009948730469 442.8340148925781 442.8909912109375 442.9679870605469 443.0530090332031 443.1059875488281 443.2019958496094 443.27099609375 443.3380126953125 443.42401123046875 443.47698974609375 443.5870056152344 443.6600036621094 443.5069885253906 436.7820129394531 436.7749938964844 436.7720031738281 436.77301025390625 436.77301025390625 436.77099609375 436.7640075683594 436.7650146484375 436.7539978027344 436.760009765625 436.7669982910156 436.75 436.75799560546875 436.7640075683594 436.7550048828125 436.76800537109375 436.7590026855469 436.7699890136719 436.7650146484375 436.7550048828125 436.74798583984375 436.7409973144531
438.0450134277344 438.0419921875 438.0199890136719 438.0400085449219 438.02301025390625 437.9639892578125 437.9779968261719 437.96600341796875 437.90301513671875 437.89300537109375 437.8949890136719 437.8550109863281 437.864990234375 437.8599853515625 437.8810119628906 437.90899658203125 438.00299072265625 438.0119934082031 437.8919982910156 437.8819885253906 437.8919982910156 437.89801025390625 437.9110107421875 437.9070129394531 437.9010009765625 437.9330139160156 437.9230041503906 437.87200927734375 437.9100036621094 437.9360046386719 437.95001220703125 436.5539855957031 436.2200012207031 436.2170104980469 436.2179870605469 436.2309875488281 436.23699951171875 436.2359924316406 436.24200439453125 440.6570129394531 440.77398681640625 440.90399169921875 441.0260009765625 441.1520080566406 441.31201171875 441.406005859375 441.5459899902344 441.6719970703125 441.8080139160156 441.9339904785156 442.04901123046875 442.2090148925781 442.3110046386719 442.4320068359375 442.5780029296875 442.593994140625 442.46600341796875 442.35198974609375 442.23699951171875 442.09600830078125 441.93499755859375 441.8280029296875 441.71099853515625 441.56298828125 441.43701171875 441.3169860839844 441.17999267578125 441.04400634765625 440.9630126953125 440.7950134277344 440.6600036621094 440.43701171875 439.5799865722656 439.82598876953125 439.8479919433594 440.4079895019531 443.3550109863281 443.3529968261719 443.3299865722656 443.3479919433594 443.39801025390625 442.8070068359375 439.7349853515625 439.8210144042969 439.85699462890625 436.52099609375 440.9049987792969 440.6570129394531 440.74798583984375 440.4649963378906 440.4490051269531 440.43499755859375 440.4330139160156 440.4259948730469 440.4179992675781 440.40899658203125 440.3160095214844 438.25 436.8630065917969 436.77301025390625 436.781005859375 436.8630065917969 436.8139953613281 436.8429870605469 436.8710021972656 436.87200927734375 436.88800048828125 436.8869934082031 436.8810119628906 436.8919982910156 436.89898681640625 436.9110107421875 436.9230041503906 436.9219970703125 436.9259948730469 436.9620056152344 436.94500732421875 436.9519958496094 436.9360046386719 436.9440002441406 436.93499755859375 443.9289855957031 443.85400390625 443.8169860839844 443.65399169921875 436.8630065917969 437.4809875488281 438.65399169921875 439.7239990234375 439.6319885253906 436.8500061035156 436.9119873046875 442.89599609375 442.9549865722656 443.072998046875 443.1310119628906 443.2090148925781 443.2909851074219 443.3559875488281 443.4230041503906 443.4930114746094 443.5849914550781 443.6610107421875 441.4010009765625 436.7909851074219 436.78900146484375 436.7900085449219 436.7770080566406 436.77801513671875 436.77301025390625 436.77801513671875 436.7749938964844 436.7690124511719 436.76300048828125 436.76800537109375 436.76300048828125 436.7659912109375 436.7640075683594 436.76800537109375 436.7760009765625 436.7699890136719 436.7460021972656 436.77099609375 436.75 436.7510070800781 436.74200439453125
438.0320129394531 438.0069885253906 438.010009765625 437.989990234375 437.9580078125 437.9549865722656 437.968994140625 437.95098876953125 437.9389953613281 437.9460144042969 437.9360046386719 437.927001953125 437.8659973144531 437.8429870605469 437.8420104980469 437.91400146484375 437.9849853515625 437.9750061035156 437.8630065917969 437.8179931640625 437.85400390625 437.84100341796875 437.8489990234375 437.8500061035156 437.8489990234375 437.8529968261719 437.864990234375 437.8689880371094 437.8710021972656 437.89801025390625 437.94000244140625 436.2869873046875 436.2139892578125 436.2179870605469 436.2309875488281 436.2359924316406 436.2460021972656 436.23199462890625 437.1780090332031 440.67498779296875 440.7950134277344 440.8680114746094 441.0459899902344 441.1929931640625 441.3139953613281 441.4110107421875 441.58099365234375 441.6860046386719 441.8190002441406 441.9429931640625 442.06201171875 442.1650085449219 442.3210144042969 442.43798828125 442.5870056152344 442.50799560546875 442.44000244140625 442.2909851074219 442.15301513671875 442.0419921875 441.9339904785156 441.7909851074219 441.635986328125 441.52801513671875 441.4049987792969 441.2900085449219 441.12298583984375 441.0220031738281 440.864013671875 440.77398681640625 440.6239929199219 440.510009765625 440.7380065917969 439.8340148925781 439.885986328125 441.29901123046875 443.36199951171875 443.37298583984375 443.364013671875 443.35400390625 442.7550048828125 442.7090148925781 439.8299865722656 439.7430114746094 439.7720031738281 439.36700439453125 440.4750061035156 440.60699462890625 440.7130126953125 440.4469909667969 440.4469909667969 440.4779968261719 440.47100830078125 440.42999267578125 440.4330139160156 440.43798828125 440.3739929199219 436.822998046875 436.7409973144531 436.7229919433594 436.77398681640625 436.81500244140625 436.8009948730469 436.8160095214844 436.8160095214844 436.85400390625 436.87799072265625 436.8599853515625 436.864013671875 436.864990234375 436.8800048828125 436.8970031738281 436.9049987792969 436.906005859375 436.9159851074219 436.9169921875 436.94000244140625 436.92401123046875 436.9259948730469 436.9150085449219 436.89599609375 436.8919982910156 439.3590087890625 436.89801025390625 436.87799072265625 436.8559875488281 437.0889892578125 436.8139953613281 437.9570007324219 437.8210144042969 436.8429870605469 436.8919982910156 436.8999938964844 439.2560119628906 439.58599853515625 439.3039855957031 436.8890075683594 443.33099365234375 443.3559875488281 443.42401123046875 443.5329895019531 443.6090087890625 443.68701171875 436.77899169921875 436.8009948730469 436.7869873046875 436.7860107421875 436.7850036621094 436.7909851074219 436.7669982910156 436.7449951171875 436.7799987792969 436.7799987792969 436.7690124511719 436.7569885253906 436.76300048828125 436.7760009765625 436.7850036621094 436.76300048828125 436.77899169921875 436.77801513671875 436.7650146484375 436.7650146484375 436.77899169921875 436.74200439453125 436.7359924316406
437.885986328125 437.9230041503906 437.9070129394531 437.87799072265625 437.91400146484375 437.93798828125 437.9219970703125 437.9460144042969 437.8900146484375 437.8800048828125 437.92498779296875 437.8869934082031 437.8909912109375 437.8970031738281 437.8900146484375 437.9049987792969 437.9599914550781 437.9330139160156 437.8089904785156 437.81298828125 437.7820129394531 437.8160095214844 437.8089904785156 437.7900085449219 437.8269958496094 437.8139953613281 437.82501220703125 437.8389892578125 437.83099365234375 437.8380126953125 437.8500061035156 436.2449951171875 436.21099853515625 436.2179870605469 436.2149963378906 436.239013671875 436.23699951171875 436.239013671875 440.5159912109375 440.69000244140625 440.8299865722656 440.9540100097656 441.0880126953125 441.2090148925781 441.36199951171875 441.47900390625 441.6180114746094 441.7019958496094 441.8380126953125 441.9630126953125 442.1090087890625 442.25 442.3290100097656 442.4830017089844 442.57501220703125 442.5369873046875 442.3940124511719 442.2650146484375 442.156005859375 442.0369873046875 441.85101318359375 441.72601318359375 441.6260070800781 441.4779968261719 441.3609924316406 441.2120056152344 441.0799865722656 441 440.8059997558594 440.739990234375 440.57598876953125 440.4490051269531 440.8919982910156 439.7049865722656 436.510009765625 439.927001953125 440.2869873046875 443.33099365234375 443.36700439453125 443.3580017089844 439.85699462890625 439.8580017089844 439.73699951171875 439.8599853515625 439.85198974609375 439.3550109863281 440.6400146484375 440.60198974609375 440.7380065917969 440.4490051269531 440.427001953125 440.4440002441406 440.4330139160156 440.42498779296875 440.4530029296875 440.4309997558594 440.34600830078125 436.73199462890625 436.7330017089844 436.7449951171875 436.7409973144531 436.78900146484375 436.8089904785156 436.8320007324219 436.8169860839844 436.84600830078125 436.8479919433594 436.85101318359375 436.85699462890625 436.864990234375 436.8599853515625 436.8760070800781 436.86199951171875 436.885009765625 436.90301513671875 436.90899658203125 436.91900634765625 436.9119873046875 436.89898681640625 436.89898681640625 436.885009765625 436.8869934082031 437.3590087890625 436.8909912109375 436.8590087890625 436.8789978027344 436.885986328125 436.8590087890625 436.84698486328125 436.84600830078125 436.84600830078125 436.843994140625 436.8590087890625 436.8699951171875 436.8590087890625 436.8450012207031 436.85101318359375 436.8280029296875 436.8030090332031 436.8219909667969 443.5039978027344 443.6289978027344 443.6310119628906 436.77301025390625 436.7919921875 436.78900146484375 436.7799987792969 436.7820129394531 436.7879943847656 436.7909851074219 436.78900146484375 436.7869873046875 436.77099609375 436.7690124511719 436.7829895019531 436.7799987792969 436.76800537109375 436.7950134277344 436.7690124511719 436.7919921875 436.781005859375 436.7950134277344 436.7720031738281 436.7659912109375 436.75799560546875 436.7330017089844
437.8139953613281 437.8210144042969 437.85400390625 437.8399963378906 437.8689880371094 437.8160095214844 437.8699951171875 437.8580017089844 437.86700439453125 437.8680114746094 437.8529968261719 437.8089904785156 437.8590087890625 437.86199951171875 437.8890075683594 437.8999938964844 437.8689880371094 437.8800048828125 437.8370056152344 437.7560119628906 437.77301025390625 437.7359924316406 437.7560119628906 437.7650146484375 437.74798583984375 437.760009765625 437.77301025390625 437.7650146484375 437.7829895019531 437.77801513671875 437.3810119628906 436.45599365234375 436.2250061035156 436.22601318359375 436.2510070800781 436.25 436.23699951171875 436.239013671875 440.6730041503906 440.79400634765625 440.89898681640625 440.9849853515625 441.10101318359375 441.239990234375 441.3710021972656 441.5400085449219 441.63299560546875 441.75 441.87799072265625 441.9960021972656 442.13800048828125 442.2489929199219 442.3699951171875 442.5039978027344 442.572998046875 442.50299072265625 442.3479919433594 442.2340087890625 442.1099853515625 441.97100830078125 441.8429870605469 441.72100830078125 441.59100341796875 441.4570007324219 441.32598876953125 441.17401123046875 441.0589904785156 440.9150085449219 440.7850036621094 440.70599365234375 440.5350036621094 439.8429870605469 439.9429931640625 439.88299560546875 438.8009948730469 436.5199890136719 439.90399169921875 439.86199951171875 439.76800537109375 439.9909973144531 439.8500061035156 439.8070068359375 439.8710021972656 439.864990234375 439.86199951171875 436.5 440.5270080566406 440.5610046386719 440.656005859375 440.718994140625 440.4280090332031 440.4410095214844 440.3999938964844 440.43499755859375 440.4570007324219 440.44500732421875 436.7770080566406 436.7409973144531 436.7460021972656 436.7550048828125 436.77099609375 436.7929992675781 436.8070068359375 436.82501220703125 436.8039855957031 436.8429870605469 436.8340148925781 436.8429870605469 436.8479919433594 436.8609924316406 436.8550109863281 436.864990234375 436.8699951171875 436.8699951171875 436.9010009765625 436.8909912109375 436.9070129394531 436.8919982910156 436.8550109863281 436.8869934082031 436.875 436.8710021972656 436.8699951171875 436.8699951171875 436.8900146484375 436.8689880371094 436.88800048828125 436.8680114746094 436.8550109863281 436.84698486328125 436.8559875488281 436.8500061035156 436.8450012207031 436.8420104980469 436.8290100097656 436.8370056152344 436.8399963378906 436.8280029296875 436.80999755859375 436.8290100097656 436.8089904785156 436.8070068359375 436.77801513671875 436.7900085449219 436.7460021972656 436.77899169921875 436.7929992675781 436.7879943847656 436.7900085449219 436.7860107421875 436.77801513671875 436.7770080566406 436.7659912109375 436.77398681640625 436.7860107421875 436.77899169921875 436.77801513671875 436.80499267578125 436.7860107421875 436.7850036621094 436.77398681640625 436.7770080566406 436.7770080566406 436.7760009765625 436.7560119628906 436.75299072265625
437.70098876953125 437.7330017089844 437.7439880371094 437.75299072265625 437.7279968261719 437.739013671875 437.75799560546875 437.7900085449219 437.74700927734375 437.7120056152344 437.7829895019531 437.6719970703125 437.7929992675781 437.7860107421875 437.8089904785156 437.8420104980469 437.86700439453125 437.8420104980469 437.7820129394531 437.6700134277344 437.69000244140625 437.70599365234375 437.6969909667969 437.6960144042969 437.73699951171875 437.71600341796875 437.74200439453125 437.7510070800781 437.7300109863281 437.7349853515625 437.7340087890625 437.010009765625 436.32000732421875 436.25299072265625 436.2449951171875 436.2489929199219 436.239013671875 436.24200439453125 436.843994140625 437.2860107421875 440.85198974609375 441.0719909667969 441.1910095214844 441.3039855957031 441.43701171875 441.5559997558594 441.68798828125 441.8039855957031 441.9219970703125 442.0580139160156 442.177001953125 442.2869873046875 442.4280090332031 442.552001953125 442.5870056152344 442.4989929199219 442.322998046875 442.2040100097656 442.09600830078125 441.9679870605469 441.79400634765625 441.65301513671875 441.5530090332031 441.40399169921875 441.2850036621094 441.2030029296875 441.00799560546875 440.9119873046875 440.80999755859375 440.6659851074219 436.2690124511719 436.3609924316406 438.2640075683594 439.8689880371094 439.8089904785156 440.5679931640625 439.8380126953125 439.8550109863281 439.8689880371094 439.82598876953125 439.6730041503906 439.67498779296875 439.69000244140625 439.7869873046875 436.3009948730469 436.35101318359375 440.4540100097656 440.47198486328125 440.6090087890625 440.6969909667969 440.42498779296875 440.4179992675781 440.43499755859375 440.42498779296875 440.4330139160156 440.4700012207031 436.7829895019531 436.7590026855469 436.7659912109375 436.7659912109375 436.7829895019531 436.80499267578125 436.8219909667969 436.83599853515625 436.8269958496094 436.8429870605469 436.8380126953125 436.8479919433594 436.8450012207031 436.85400390625 436.8580017089844 436.86199951171875 436.87298583984375 436.8739929199219 436.8810119628906 436.87701416015625 436.8739929199219 436.8890075683594 436.8909912109375 436.8789978027344 436.864990234375 436.8710021972656 436.8710021972656 436.885986328125 436.885009765625 436.8590087890625 436.8529968261719 436.8529968261719 436.864013671875 436.8299865722656 436.8630065917969 436.8659973144531 436.85400390625 436.8340148925781 436.8380126953125 436.8389892578125 436.8210144042969 436.8280029296875 436.81298828125 436.8190002441406 436.80999755859375 436.8139953613281 436.7980041503906 436.78900146484375 436.7879943847656 436.7869873046875 436.7909851074219 436.7860107421875 436.7829895019531 436.7820129394531 436.7869873046875 436.7879943847656 436.7860107421875 436.7820129394531 436.7929992675781 436.7860107421875 436.7929992675781 436.7929992675781 436.80499267578125 436.7879943847656 436.7959899902344 436.781005859375 436.7869873046875 436.77801513671875 436.75799560546875 436.7489929199219
437.56298828125 437.5780029296875 437.5979919433594 437.6289978027344 437.61700439453125 437.635009765625 437.6549987792969 437.625 437.6300048828125 437.6510009765625 437.6780090332031 437.6369934082031 437.6499938964844 437.6820068359375 437.6510009765625 437.75799560546875 437.82598876953125 437.802001953125 437.7869873046875 437.62799072265625 437.6510009765625 437.6659851074219 437.6619873046875 437.67999267578125 437.6679992675781 437.6830139160156 437.6910095214844 437.6929931640625 437.6709899902344 437.7080078125 437.6820068359375 437.66900634765625 436.3580017089844 436.27099609375 436.2569885253906 436.26300048828125 436.2439880371094 436.239990234375 436.25 436.2510070800781 436.24700927734375 436.239013671875 437.3009948730469 436.2619934082031 441.4419860839844 441.5989990234375 441.7250061035156 441.87701416015625 442.0060119628906 442.1189880371094 442.21600341796875 442.375 442.45098876953125 442.60101318359375 442.60101318359375 442.4620056152344 442.3070068359375 442.1860046386719 442.0950012207031 441.9339904785156 441.7489929199219 441.6300048828125 441.5050048828125 441.3450012207031 441.239990234375 441.13299560546875 440.9840087890625 440.8710021972656 440.7590026855469 440.6579895019531 436.260009765625 436.30999755859375 437.02398681640625 436.52398681640625 436.5199890136719 437.9639892578125 437.9460144042969 436.5419921875 438.4230041503906 440.125 440.34698486328125 439.92498779296875 439.8970031738281 436.3500061035156 436.2959899902344 440.2409973144531 440.44000244140625 440.4440002441406 440.6109924316406 440.7550048828125 440.4429931640625 440.44000244140625 440.4330139160156 440.45098876953125 440.4490051269531 440.4289855957031 437.9599914550781 436.74700927734375 436.76300048828125 436.760009765625 436.79400634765625 436.8160095214844 436.8370056152344 436.84100341796875 436.8349914550781 436.8399963378906 436.85400390625 436.8380126953125 436.8500061035156 436.864013671875 436.8500061035156 436.8599853515625 436.86199951171875 436.85198974609375 436.8909912109375 436.87799072265625 436.8810119628906 436.875 436.87799072265625 436.8590087890625 436.8819885253906 436.885986328125 436.87799072265625 436.8810119628906 436.86199951171875 436.86199951171875 436.8710021972656 436.8699951171875 436.8590087890625 436.86199951171875 436.86199951171875 436.87701416015625 436.85198974609375 436.85101318359375 436.84698486328125 436.8389892578125 436.822998046875 436.8160095214844 436.80499267578125 436.82000732421875 436.8139953613281 436.79998779296875 436.8059997558594 436.8030090332031 436.81201171875 436.7959899902344 436.80999755859375 436.80499267578125 436.802001953125 436.7909851074219 436.7869873046875 436.7820129394531 436.7980041503906 436.7950134277344 436.802001953125 436.8080139160156 436.81201171875 436.79998779296875 436.802001953125 436.79400634765625 436.78900146484375 436.78399658203125 436.77301025390625 436.77398681640625 436.7799987792969 436.77801513671875
437.4200134277344 437.4289855957031 437.4339904785156 437.5270080566406 437.52801513671875 437.5270080566406 437.5360107421875 437.54901123046875 437.5329895019531 437.5920104980469 437.5329895019531 437.56201171875 437.5610046386719 437.56298828125 437.58099365234375 437.6669921875 437.7510070800781 437.72100830078125 437.7279968261719 437.7130126953125 437.58599853515625 437.6109924316406 437.6289978027344 437.6310119628906 437.6449890136719 437.6180114746094 437.61700439453125 437.6289978027344 437.6470031738281 437.64300537109375 437.6510009765625 437.6600036621094 436.39801025390625 436.28399658203125 436.27801513671875 436.26800537109375 436.22900390625 436.23199462890625 436.2510070800781 436.2550048828125 436.2409973144531 436.24798583984375 436.2250061035156 436.24798583984375 436.25 436.25799560546875 436.2550048828125 436.26800537109375 442.0419921875 442.1470031738281 442.2539978027344 442.4209899902344 442.5639953613281 442.62298583984375 442.61700439453125 442.4590148925781 442.2929992675781 442.18499755859375 442.0539855957031 441.9150085449219 441.7430114746094 441.6029968261719 441.4859924316406 441.3599853515625 441.2099914550781 441.08599853515625 440.9490051269531 440.82000732421875 440.7170104980469 440.5660095214844 436.2569885253906 436.22900390625 436.45098876953125 436.5419921875 436.6159973144531 436.5350036621094 436.7340087890625 436.7510070800781 437.3110046386719 436.8009948730469 437.9129943847656 436.80999755859375 436.3599853515625 439.9169921875 438.72698974609375 440.3970031738281 440.47698974609375 440.43701171875 440.635986328125 440.7359924316406 440.43499755859375 440.43798828125 440.4360046386719 440.427001953125 440.4570007324219 440.3380126953125 436.7619934082031 436.77099609375 436.7720031738281 436.7760009765625 436.81500244140625 436.82501220703125 436.83099365234375 436.84600830078125 436.8599853515625 436.8429870605469 436.85101318359375 436.8590087890625 436.8529968261719 436.8370056152344 436.8689880371094 436.8699951171875 436.8900146484375 436.8869934082031 436.8800048828125 436.8819885253906 436.87298583984375 436.8789978027344 436.885009765625 436.87799072265625 436.87298583984375 436.8890075683594 436.8919982910156 436.8760070800781 436.8819885253906 436.88299560546875 436.8909912109375 436.87799072265625 436.8699951171875 436.8479919433594 436.8680114746094 436.8659973144531 436.8429870605469 436.864990234375 436.8389892578125 436.85400390625 436.81500244140625 436.8210144042969 436.8190002441406 436.8280029296875 436.8380126953125 436.81500244140625 436.8070068359375 436.8240051269531 436.8160095214844 436.7929992675781 436.81298828125 436.7980041503906 436.7799987792969 436.8030090332031 436.79400634765625 436.7959899902344 436.7919921875 436.81500244140625 436.79400634765625 436.7900085449219 440.5299987792969 436.7850036621094 436.79901123046875 436.802001953125 436.77099609375 436.7799987792969 436.7699890136719 436.7640075683594 436.76300048828125 436.760009765625
440.1260070800781 440.1099853515625 440.0409851074219 439.9700012207031 437.38800048828125 437.4049987792969 437.4259948730469 437.406005859375 437.42999267578125 437.4670104980469 437.46099853515625 437.4440002441406 437.4570007324219 437.510009765625 437.5270080566406 437.64898681640625 437.72198486328125 437.72198486328125 437.6860046386719 437.66400146484375 437.54901123046875 437.53399658203125 437.5419921875 437.5610046386719 437.56500244140625 437.5830078125 437.572998046875 437.5570068359375 437.5889892578125 437.5610046386719 437.60699462890625 437.39898681640625 436.9410095214844 436.3370056152344 436.2909851074219 436.27801513671875 436.25799560546875 436.27301025390625 436.2659912109375 436.2510070800781 436.25299072265625 436.26800537109375 436.2669982910156 436.2510070800781 436.2539978027344 436.2590026855469 436.2550048828125 436.2550048828125 436.26300048828125 436.2510070800781 436.2510070800781 436.2449951171875 436.2439880371094 442.7120056152344 442.57000732421875 442.4630126953125 442.2900085449219 442.1709899902344 442.0450134277344 441.92401123046875 441.7449951171875 441.61199951171875 441.49798583984375 441.3429870605469 441.1960144042969 441.0509948730469 440.9259948730469 440.8059997558594 440.6940002441406 440.5379943847656 437.5530090332031 436.28399658203125 436.4419860839844 436.4960021972656 436.4580078125 436.572998046875 436.65899658203125 436.7229919433594 436.8009948730469 436.7330017089844 436.7959899902344 436.7770080566406 436.697998046875 437.8699951171875 438.7820129394531 440.0559997558594 440.49200439453125 440.44500732421875 440.42498779296875 440.7250061035156 440.6990051269531 440.4330139160156 440.4219970703125 440.4330139160156 440.4639892578125 440.38299560546875 437.67401123046875 436.90899658203125 436.7909851074219 436.81298828125 436.82000732421875 436.8389892578125 436.84600830078125 436.8500061035156 436.8630065917969 436.87701416015625 436.8580017089844 436.8710021972656 436.8599853515625 436.8819885253906 436.8760070800781 436.8800048828125 436.88299560546875 436.8890075683594 436.87298583984375 436.8789978027344 436.8819885253906 436.8810119628906 436.885986328125 436.87200927734375 436.88800048828125 436.885986328125 436.8599853515625 436.8819885253906 436.8789978027344 436.885986328125 436.8760070800781 436.8739929199219 436.87200927734375 436.8800048828125 436.8479919433594 436.86700439453125 436.885009765625 436.87200927734375 436.8689880371094 436.8580017089844 436.8399963378906 436.8450012207031 436.81500244140625 436.8370056152344 436.8190002441406 436.8330078125 436.8240051269531 436.822998046875 436.8299865722656 436.84100341796875 436.8269958496094 436.8210144042969 436.8210144042969 436.8240051269531 436.80499267578125 436.8169860839844 437.7909851074219 436.8110046386719 440.61700439453125 440.64300537109375 440.56500244140625 440.52099609375 436.7879943847656 436.78900146484375 436.7820129394531 436.7590026855469 436.77398681640625 436.7449951171875 436.76800537109375 436.7760009765625
440.2659912109375 440.24700927734375 440.2019958496094 440.15301513671875 440.13800048828125 440.1000061035156 440.0790100097656 439.9519958496094 437.3089904785156 437.364990234375 437.3219909667969 437.3139953613281 437.37298583984375 437.44500732421875 437.40899658203125 437.5190124511719 437.6629943847656 437.6889953613281 437.6449890136719 437.60699462890625 437.5350036621094 437.52301025390625 437.510009765625 437.5039978027344 437.52301025390625 437.4989929199219 437.5400085449219 437.5350036621094 437.5360107421875 437.5350036621094 437.53399658203125 437.5530090332031 437.5350036621094 436.3110046386719 436.30499267578125 436.2980041503906 436.2969970703125 436.2770080566406 436.2850036621094 436.2900085449219 436.2909851074219 436.28900146484375 436.2770080566406 436.2699890136719 436.26800537109375 436.2820129394531 436.26800537109375 436.2590026855469 436.26300048828125 436.2699890136719 436.2539978027344 436.24700927734375 436.2179870605469 436.24200439453125 436.239990234375 436.2179870605469 436.239990234375 441.968994140625 442.0379943847656 441.8219909667969 441.78900146484375 441.6470031738281 441.4960021972656 441.3949890136719 441.218994140625 441.0429992675781 440.8940124511719 440.79400634765625 440.64898681640625 437.1969909667969 437.0880126953125 436.62298583984375 436.50799560546875 436.5119934082031 436.5669860839844 436.5719909667969 436.5690002441406 436.5459899902344 436.656005859375 436.78399658203125 436.802001953125 436.7860107421875 436.697998046875 436.22900390625 439.9859924316406 436.2239990234375 439.72900390625 440.4440002441406 440.4360046386719 440.5830078125 440.72900390625 440.4590148925781 440.4419860839844 440.4570007324219 440.4580078125 436.7489929199219 436.7760009765625 436.7669982910156 436.79998779296875 436.81298828125 436.8299865722656 436.84698486328125 436.8370056152344 436.8739929199219 436.8819885253906 436.8789978027344 436.8789978027344 436.8800048828125 436.88299560546875 436.8800048828125 436.87799072265625 436.8909912109375 436.8909912109375 436.8949890136719 436.87799072265625 436.885986328125 436.8819885253906 436.88299560546875 436.8840026855469 436.89599609375 436.89599609375 436.8949890136719 436.8999938964844 436.8900146484375 436.8890075683594 436.88800048828125 436.8739929199219 436.8479919433594 436.87701416015625 436.8810119628906 436.8819885253906 436.885986328125 436.885009765625 436.87799072265625 436.8760070800781 436.83599853515625 436.85699462890625 436.8599853515625 436.8630065917969 436.82598876953125 436.83599853515625 436.8429870605469 436.8479919433594 436.8059997558594 436.8380126953125 436.8450012207031 436.85101318359375 436.84698486328125 436.8349914550781 436.8169860839844 436.8210144042969 436.82000732421875 440.6440124511719 440.6600036621094 440.6409912109375 440.6090087890625 440.57598876953125 440.5539855957031 436.7860107421875 436.7879943847656 436.7460021972656 436.74200439453125 436.77398681640625 436.76300048828125 436.76300048828125 436.7659912109375
440.3810119628906 440.3179931640625 440.3139953613281 440.2720031738281 440.2569885253906 440.24700927734375 440.2300109863281 440.1910095214844 440.177001953125 440.135009765625 440.0979919433594 440.06500244140625 439.9599914550781 437.2489929199219 437.38800048828125 437.4419860839844 437.5799865722656 437.5929870605469 437.5920104980469 437.5880126953125 437.5580139160156 437.4179992675781 437.4800109863281 437.4490051269531 437.4580078125 437.47198486328125 437.4729919433594 437.4930114746094 437.4859924316406 437.51800537109375 437.50799560546875 437.5150146484375 437.489990234375 436.3169860839844 436.2959899902344 436.3009948730469 436.3030090332031 436.28900146484375 436.3039855957031 436.2850036621094 436.2929992675781 436.2869873046875 436.2929992675781 436.281005859375 436.2869873046875 436.2829895019531 436.2869873046875 436.2749938964844 436.2690124511719 436.26800537109375 436.2539978027344 436.24200439453125 436.2550048828125 436.2380065917969 436.2300109863281 436.2279968261719 436.2330017089844 436.2309875488281 436.2380065917969 436.239990234375 437.2380065917969 441.60198974609375 441.4700012207031 441.2380065917969 441.22198486328125 441.08099365234375 440.9110107421875 440.7829895019531 440.6210021972656 436.2770080566406 436.5580139160156 436.50201416015625 436.4800109863281 436.5350036621094 436.56500244140625 436.57000732421875 436.5220031738281 436.4960021972656 436.593994140625 436.5820007324219 436.6210021972656 436.6239929199219 436.6510009765625 436.5570068359375 440.14801025390625 440.41400146484375 440.43499755859375 440.5740051269531 440.4700012207031 440.5880126953125 440.7300109863281 440.4389953613281 440.4360046386719 440.4679870605469 440.4490051269531 436.75299072265625 436.7560119628906 436.7569885253906 436.8139953613281 436.8110046386719 436.8290100097656 436.85198974609375 436.8909912109375 436.8810119628906 436.875 436.8699951171875 436.88800048828125 436.8869934082031 436.8940124511719 436.9070129394531 436.906005859375 436.9100036621094 436.89898681640625 436.8999938964844 436.8840026855469 436.8970031738281 436.89801025390625 436.9049987792969 436.906005859375 436.9070129394531 436.91400146484375 436.9070129394531 436.90399169921875 436.8949890136719 436.8840026855469 436.89801025390625 436.8940124511719 436.8869934082031 436.8840026855469 436.8970031738281 436.885009765625 436.8890075683594 436.8900146484375 436.8869934082031 436.864990234375 436.87200927734375 436.8710021972656 436.8590087890625 436.8380126953125 436.85198974609375 436.8680114746094 436.8590087890625 436.84600830078125 436.86199951171875 436.85101318359375 436.8479919433594 436.8550109863281 436.85400390625 436.8420104980469 436.8349914550781 436.8399963378906 440.7640075683594 440.68499755859375 440.6610107421875 440.64801025390625 440.6159973144531 440.58099365234375 440.572998046875 440.5740051269531 436.7560119628906 436.75 436.7340087890625 436.7539978027344 436.7650146484375 436.7669982910156 436.76300048828125
440.4939880371094 440.4729919433594 440.4849853515625 440.427001953125 440.40399169921875 440.3699951171875 440.3429870605469 440.2959899902344 440.2980041503906 440.2439880371094 440.2099914550781 440.1889953613281 440.177001953125 440.1440124511719 440.1029968261719 437.3659973144531 437.4939880371094 437.54998779296875 437.54400634765625 437.5450134277344 437.47698974609375 437.4129943847656 437.40899658203125 437.4179992675781 437.44000244140625 437.4169921875 437.4330139160156 437.43798828125 437.45098876953125 437.44500732421875 437.4620056152344 437.4679870605469 437.45001220703125 436.3699951171875 436.3169860839844 436.322998046875 436.32501220703125 436.32598876953125 436.3089904785156 436.3179931640625 436.3070068359375 436.3039855957031 436.3059997558594 436.28900146484375 436.29901123046875 436.2929992675781 436.2909851074219 436.2770080566406 436.2690124511719 436.26800537109375 436.260009765625 436.2550048828125 436.25299072265625 436.239990234375 436.2309875488281 436.2229919433594 436.2330017089844 436.2250061035156 436.2279968261719 436.2309875488281 436.2309875488281 436.2279968261719 436.2330017089844 436.2359924316406 436.22198486328125 437.32000732421875 440.8559875488281 440.78900146484375 440.65301513671875 436.19500732421875 436.3580017089844 436.4909973144531 436.52099609375 436.55499267578125 436.5870056152344 436.59698486328125 436.5790100097656 436.57501220703125 436.5820007324219 436.6080017089844 436.63800048828125 436.7130126953125 436.552001953125 436.47198486328125 440.3909912109375 440.4230041503906 440.4729919433594 440.427001953125 440.43499755859375 440.5719909667969 440.6960144042969 440.4289855957031 440.45098876953125 440.4630126953125 440.4309997558594 436.76300048828125 436.760009765625 436.781005859375 436.7799987792969 436.8009948730469 436.82000732421875 436.8609924316406 436.88800048828125 436.87799072265625 436.8909912109375 436.864990234375 436.88299560546875 436.8970031738281 436.8760070800781 436.9070129394531 436.9119873046875 436.9049987792969 436.8999938964844 436.89300537109375 436.90399169921875 436.89801025390625 436.9200134277344 436.91400146484375 436.9049987792969 436.9150085449219 436.9159851074219 436.90899658203125 436.8970031738281 436.89300537109375 436.89599609375 436.89300537109375 436.9119873046875 436.9010009765625 436.9179992675781 436.8919982910156 436.9020080566406 436.9070129394531 436.89801025390625 436.9049987792969 436.8689880371094 436.8710021972656 436.87200927734375 436.8810119628906 436.8739929199219 436.87200927734375 436.8819885253906 436.8659973144531 436.87200927734375 436.8590087890625 436.8529968261719 436.87298583984375 436.875 438.3089904785156 438.5 436.8210144042969 440.7590026855469 440.7250061035156 440.69500732421875 440.7030029296875 440.6619873046875 440.6340026855469 440.6080017089844 440.61199951171875 440.5799865722656 436.7560119628906 436.7749938964844 436.7770080566406 436.7349853515625 436.7430114746094 436.76300048828125 436.75299072265625
440.65399169921875 440.6210021972656 440.5889892578125 440.54901123046875 440.52099609375 440.4679870605469 440.46099853515625 440.447998046875 440.40399169921875 440.3489990234375 440.3399963378906 440.2929992675781 440.27801513671875 440.24700927734375 440.27099609375 437.3139953613281 437.4169921875 437.5 437.5199890136719 437.4909973144531 437.35198974609375 437.364990234375 437.3630065917969 437.3739929199219 437.3970031738281 437.3890075683594 437.4150085449219 437.40399169921875 437.3630065917969 437.4150085449219 437.4110107421875 437.4079895019531 437.4100036621094 436.7980041503906 436.3169860839844 436.3489990234375 436.3389892578125 436.3599853515625 436.3529968261719 436.3340148925781 436.322998046875 436.3210144042969 436.3110046386719 436.3070068359375 436.31500244140625 436.3059997558594 436.29901123046875 436.27899169921875 436.2909851074219 436.2829895019531 436.2569885253906 436.25201416015625 436.2460021972656 436.2359924316406 436.2149963378906 436.1929931640625 436.22198486328125 436.2250061035156 436.1990051269531 436.1960144042969 436.2139892578125 436.2120056152344 436.2250061035156 436.2120056152344 436.20098876953125 436.2409973144531 436.2229919433594 436.2179870605469 436.2229919433594 436.2239990234375 436.2749938964844 436.3380126953125 436.5050048828125 436.5150146484375 436.5679931640625 436.5660095214844 436.6510009765625 436.6099853515625 436.57598876953125 436.5820007324219 436.7380065917969 436.8240051269531 437.3070068359375 438.55499267578125 440.22601318359375 440.4739990234375 440.4490051269531 440.4389953613281 440.4419860839844 440.4410095214844 440.75299072265625 440.63299560546875 440.4530029296875 440.4599914550781 440.2170104980469 436.7309875488281 436.7969970703125 436.79998779296875 436.75201416015625 436.8030090332031 436.8399963378906 436.875 436.89801025390625 436.8869934082031 436.8900146484375 436.885009765625 436.8900146484375 436.9169921875 436.90899658203125 436.9049987792969 436.91900634765625 436.9440002441406 436.92999267578125 436.9119873046875 436.9110107421875 436.9179992675781 436.9129943847656 436.9129943847656 436.9049987792969 436.9119873046875 436.90399169921875 436.8909912109375 436.9070129394531 436.8819885253906 436.88299560546875 436.9070129394531 436.90899658203125 436.9219970703125 436.9169921875 436.89300537109375 436.9169921875 436.8909912109375 436.90301513671875 436.90899658203125 436.89300537109375 436.8940124511719 436.885009765625 436.9070129394531 436.9200134277344 436.8869934082031 436.89300537109375 436.8840026855469 436.88299560546875 436.9020080566406 436.8970031738281 437.0719909667969 438.0379943847656 440.8710021972656 440.8890075683594 440.8110046386719 440.75299072265625 440.7539978027344 440.72100830078125 440.6990051269531 440.67999267578125 440.6510009765625 440.6189880371094 440.6109924316406 440.5790100097656 440.5669860839844 436.77099609375 437.0799865722656 436.7640075683594 436.7720031738281 436.760009765625 436.7720031738281
440.76300048828125 440.7349853515625 440.70001220703125 440.6419982910156 440.6510009765625 440.6340026855469 440.62298583984375 440.5580139160156 440.5320129394531 440.50201416015625 440.47601318359375 440.4540100097656 440.4169921875 440.4219970703125 440.343994140625 437.3059997558594 437.3489990234375 437.447998046875 437.48699951171875 437.46600341796875 437.4460144042969 437.343994140625 437.34100341796875 437.30999755859375 437.3219909667969 437.33599853515625 437.3590087890625 437.3599853515625 437.34100341796875 437.34100341796875 437.35101318359375 437.3479919433594 437.3710021972656 436.9330139160156 436.38800048828125 436.3789978027344 436.35101318359375 436.37701416015625 436.35198974609375 436.3489990234375 436.343994140625 436.3340148925781 436.3380126953125 436.31298828125 436.31500244140625 436.29901123046875 436.2929992675781 436.28399658203125 436.2820129394531 436.2539978027344 436.25799560546875 436.2560119628906 436.2380065917969 436.2149963378906 436.2090148925781 436.18701171875 436.1940002441406 436.1889953613281 436.1919860839844 436.1969909667969 436.1990051269531 436.18798828125 436.21600341796875 436.197998046875 436.2170104980469 436.2149963378906 436.2309875488281 436.1969909667969 436.2170104980469 436.22601318359375 436.239990234375 436.2909851074219 436.3609924316406 436.41400146484375 436.46099853515625 436.50201416015625 436.5270080566406 436.5480041503906 436.5580139160156 436.72698974609375 436.76300048828125 436.7900085449219 436.8479919433594 440.02301025390625 440.6369934082031 440.72698974609375 440.7489929199219 440.947998046875 440.7170104980469 440.4469909667969 440.5989990234375 440.7279968261719 440.47100830078125 440.4700012207031 436.7760009765625 436.75799560546875 436.7279968261719 436.7950134277344 436.8039855957031 436.8280029296875 436.83099365234375 436.8760070800781 436.89300537109375 436.885009765625 436.906005859375 436.8590087890625 436.86700439453125 436.9100036621094 436.9020080566406 436.927001953125 436.9339904785156 436.93798828125 436.927001953125 436.94000244140625 436.9360046386719 436.927001953125 436.8949890136719 436.92401123046875 436.9179992675781 436.9230041503906 436.9150085449219 436.9200134277344 436.9079895019531 436.90399169921875 436.9049987792969 436.90399169921875 436.9169921875 436.9230041503906 436.91900634765625 436.9049987792969 436.8940124511719 436.9150085449219 436.9020080566406 436.90301513671875 436.89801025390625 436.90301513671875 436.89300537109375 436.968994140625 436.93701171875 436.9219970703125 436.9020080566406 436.9360046386719 436.8940124511719 436.8919982910156 436.906005859375 437.02301025390625 436.8810119628906 440.86700439453125 440.87298583984375 440.8900146484375 440.7900085449219 440.7720031738281 440.73199462890625 440.7090148925781 440.6960144042969 440.6610107421875 440.63800048828125 440.62799072265625 440.5820007324219 440.5830078125 440.5669860839844 436.760009765625 436.7699890136719 436.7640075683594 436.7690124511719 436.7929992675781
440.927001953125 440.8710021972656 440.8349914550781 440.8380126953125 440.8349914550781 440.7300109863281 440.7590026855469 440.7239990234375 440.67498779296875 440.6099853515625 440.6059875488281 440.5830078125 440.5450134277344 440.53900146484375 440.49700927734375 437.2850036621094 437.2959899902344 437.38800048828125 437.39599609375 437.39898681640625 437.4100036621094 437.2879943847656 437.2919921875 437.302001953125 437.2909851074219 437.2869873046875 437.2820129394531 437.27899169921875 437.29901123046875 437.31298828125 437.30999755859375 437.2879943847656 437.3059997558594 437.3089904785156 436.4460144042969 436.3800048828125 436.3819885253906 436.39300537109375 436.3680114746094 436.3630065917969 436.3609924316406 436.34100341796875 436.3399963378906 436.34600830078125 436.3179931640625 436.3080139160156 436.3240051269531 436.3110046386719 436.2770080566406 436.25201416015625 436.2309875488281 436.2430114746094 436.22601318359375 436.1990051269531 436.2099914550781 436.197998046875 436.2049865722656 436.1910095214844 436.18798828125 436.2099914550781 436.1820068359375 436.197998046875 436.2090148925781 436.2040100097656 436.19500732421875 436.1940002441406 436.2070007324219 436.2019958496094 436.2030029296875 436.2049865722656 436.24798583984375 436.2929992675781 436.33599853515625 436.35400390625 436.4280090332031 436.47198486328125 436.5169982910156 436.5320129394531 436.55999755859375 436.6099853515625 436.656005859375 436.71099853515625 436.7040100097656 440.09100341796875 440.3970031738281 440.5360107421875 440.7489929199219 440.7619934082031 440.7130126953125 440.4389953613281 440.60400390625 440.7340087890625 440.48199462890625 440.4530029296875 436.7799987792969 436.78900146484375 436.7850036621094 436.7850036621094 436.80999755859375 436.8190002441406 436.86199951171875 436.88800048828125 436.9020080566406 436.8949890136719 436.9230041503906 436.91400146484375 436.9100036621094 436.927001953125 436.9020080566406 436.9419860839844 436.927001953125 436.9339904785156 436.9309997558594 436.927001953125 436.9320068359375 436.9389953613281 436.9169921875 436.9219970703125 436.9289855957031 436.9339904785156 436.9169921875 436.9179992675781 436.88299560546875 436.8940124511719 436.89801025390625 436.9169921875 436.9209899902344 436.9230041503906 436.8999938964844 436.9070129394531 436.9010009765625 436.89300537109375 436.8949890136719 436.8900146484375 436.8919982910156 436.8999938964844 436.9159851074219 436.9639892578125 436.9639892578125 436.95599365234375 436.9490051269531 436.9429931640625 436.89801025390625 436.8919982910156 436.88299560546875 436.85198974609375 437.4830017089844 438.6180114746094 440.8869934082031 440.8890075683594 440.8590087890625 440.78399658203125 440.77099609375 440.7130126953125 440.7049865722656 440.6759948730469 440.6549987792969 440.6449890136719 440.6090087890625 440.59600830078125 440.5830078125 440.5480041503906 436.79998779296875 436.7760009765625 436.77398681640625 436.7879943847656
441.02301025390625 440.9960021972656 440.98699951171875 440.9519958496094 440.9360046386719 440.864013671875 440.8479919433594 440.8179931640625 440.8059997558594 440.7799987792969 440.760986328125 440.7359924316406 440.7239990234375 440.64898681640625 440.4440002441406 437.2250061035156 437.3089904785156 437.3739929199219 437.3550109863281 437.35198974609375 437.3580017089844 437.3489990234375 437.25299072265625 437.2359924316406 437.22100830078125 437.22601318359375 437.2550048828125 437.260986328125 437.25 437.2049865722656 437.25299072265625 437.2650146484375 437.260986328125 437.281005859375 437.27099609375 436.4389953613281 436.39300537109375 436.4020080566406 436.3800048828125 436.37701416015625 436.3710021972656 436.3919982910156 436.3590087890625 436.3559875488281 436.3340148925781 436.3550109863281 436.3299865722656 436.2980041503906 436.2760009765625 436.2149963378906 436.23699951171875 436.2250061035156 436.2179870605469 436.2139892578125 436.2049865722656 436.20001220703125 436.1820068359375 436.19500732421875 436.1629943847656 436.19000244140625 436.1860046386719 436.18798828125 436.1929931640625 436.19000244140625 436.1860046386719 436.18701171875 436.2099914550781 436.17999267578125 436.1960144042969 436.22198486328125 436.25 436.3070068359375 436.3489990234375 436.4020080566406 436.43499755859375 436.468994140625 436.50299072265625 436.54400634765625 436.55999755859375 436.6029968261719 436.614013671875 436.6669921875 436.7049865722656 439.99200439453125 440.385009765625 440.40399169921875 440.4469909667969 440.45599365234375 440.4909973144531 440.4670104980469 440.5989990234375 440.72100830078125 440.510009765625 440.4620056152344 436.7950134277344 436.7950134277344 436.8039855957031 436.81201171875 436.8280029296875 436.8219909667969 436.8630065917969 436.885009765625 436.9070129394531 436.8940124511719 436.9200134277344 436.9289855957031 436.9410095214844 436.9280090332031 436.9230041503906 436.93798828125 436.93798828125 436.9150085449219 436.9259948730469 436.9169921875 436.9460144042969 436.9389953613281 436.8909912109375 436.9219970703125 436.9200134277344 436.92999267578125 436.9169921875 436.885009765625 436.885986328125 436.9169921875 436.89599609375 436.9360046386719 436.9219970703125 436.90899658203125 436.90899658203125 436.9119873046875 436.90399169921875 436.9150085449219 436.93701171875 436.9129943847656 436.8909912109375 436.9200134277344 436.94500732421875 436.97601318359375 436.99700927734375 437 436.9830017089844 436.96099853515625 436.8999938964844 436.89599609375 436.8869934082031 436.9280090332031 437.0769958496094 436.89898681640625 436.9070129394531 440.8840026855469 440.9049987792969 440.8479919433594 440.76300048828125 440.7669982910156 440.718994140625 440.7179870605469 440.6830139160156 440.635009765625 440.6319885253906 440.6090087890625 440.5740051269531 440.5539855957031 436.7879943847656 436.77398681640625 436.7909851074219 436.78399658203125
441.1679992675781 441.1780090332031 441.1239929199219 441.072998046875 441.07598876953125 441.0190124511719 441.00299072265625 440.9649963378906 440.9230041503906 440.885986328125 440.84698486328125 440.82598876953125 440.81500244140625 440.79901123046875 437.197998046875 437.2090148925781 437.27899169921875 437.3190002441406 437.34600830078125 437.32598876953125 437.3110046386719 437.2909851074219 437.2070007324219 437.1960144042969 437.1860046386719 437.19500732421875 437.2019958496094 437.19500732421875 437.2170104980469 437.20098876953125 437.21099853515625 437.1919860839844 437.22698974609375 437.2279968261719 436.96099853515625 436.4460144042969 436.427001953125 436.4020080566406 436.4100036621094 436.4010009765625 436.40399169921875 436.39300537109375 436.3819885253906 436.35198974609375 436.36199951171875 436.3630065917969 436.3370056152344 436.3280029296875 436.2900085449219 436.26800537109375 436.2439880371094 436.239990234375 436.20599365234375 436.2130126953125 436.1940002441406 436.19000244140625 436.1889953613281 436.1730041503906 436.1830139160156 436.18499755859375 436.1719970703125 436.1889953613281 436.1820068359375 436.18499755859375 436.1929931640625 436.1809997558594 436.1919860839844 436.1860046386719 436.2049865722656 436.2239990234375 436.2590026855469 436.2900085449219 436.3389892578125 436.3909912109375 436.4330139160156 436.47100830078125 436.49700927734375 436.5220031738281 436.5539855957031 436.5840148925781 436.6210021972656 436.6510009765625 436.6940002441406 436.739990234375 436.8500061035156 436.73199462890625 438.4570007324219 440.0409851074219 440.32501220703125 440.4119873046875 440.4330139160156 440.64300537109375 440.51300048828125 440.3869934082031 436.8160095214844 436.8210144042969 436.82000732421875 436.8070068359375 436.8320007324219 436.8429870605469 436.8559875488281 436.87799072265625 436.9049987792969 436.9100036621094 436.90399169921875 436.9179992675781 436.8760070800781 436.9179992675781 436.9179992675781 436.9259948730469 436.9169921875 436.9289855957031 436.9230041503906 436.9209899902344 436.9230041503906 436.9110107421875 436.9100036621094 436.9209899902344 436.92401123046875 436.9209899902344 436.9219970703125 436.9169921875 436.9100036621094 436.91900634765625 436.9289855957031 436.93798828125 436.93499755859375 436.9159851074219 436.92999267578125 436.9330139160156 436.9419860839844 436.9100036621094 436.9389953613281 436.94500732421875 436.9469909667969 436.9549865722656 436.9700012207031 436.9939880371094 437.0570068359375 437.03900146484375 437.0589904785156 436.9110107421875 436.9119873046875 436.8999938964844 436.8919982910156 436.8819885253906 436.8559875488281 436.8710021972656 436.8900146484375 440.9179992675781 440.885986328125 440.885009765625 440.81500244140625 440.7720031738281 440.75799560546875 440.71099853515625 440.68798828125 440.6619873046875 440.635986328125 440.6189880371094 440.5799865722656 440.56201171875 440.5350036621094 436.7909851074219 436.781005859375 436.7929992675781
441.31298828125 441.2900085449219 441.22900390625 441.22900390625 441.1889953613281 441.1390075683594 441.12200927734375 441.093994140625 441.072998046875 441.01800537109375 441.0119934082031 440.98199462890625 440.9530029296875 440.87298583984375 437.15899658203125 437.2130126953125 437.25799560546875 437.3030090332031 437.3070068359375 437.2900085449219 437.2760009765625 437.2560119628906 437.16400146484375 437.15399169921875 437.12298583984375 437.1610107421875 437.1700134277344 437.1400146484375 437.1709899902344 437.1199951171875 437.15301513671875 437.1709899902344 437.1700134277344 437.18499755859375 437.1310119628906 436.4540100097656 436.4389953613281 436.4219970703125 436.4330139160156 436.42999267578125 436.3949890136719 436.4110107421875 436.4129943847656 436.3940124511719 436.3840026855469 436.3500061035156 436.3450012207031 436.3179931640625 436.2820129394531 436.2749938964844 436.239013671875 436.2349853515625 436.22100830078125 436.197998046875 436.18499755859375 436.1709899902344 436.1610107421875 436.1669921875 436.15899658203125 436.17999267578125 436.1910095214844 436.1830139160156 436.1969909667969 436.197998046875 436.18701171875 436.18701171875 436.1809997558594 436.18499755859375 436.2040100097656 436.22900390625 436.2409973144531 436.2980041503906 436.35198974609375 436.4119873046875 436.4119873046875 436.4460144042969 436.489013671875 436.5270080566406 436.54901123046875 436.5820007324219 436.6340026855469 436.6419982910156 436.68798828125 436.7460021972656 436.739990234375 436.7560119628906 436.77301025390625 436.7640075683594 436.7449951171875 436.7430114746094 438.46600341796875 440.4410095214844 440.18499755859375 436.82000732421875 436.7929992675781 436.8280029296875 436.8349914550781 436.82000732421875 436.8479919433594 436.8450012207031 436.87200927734375 436.8940124511719 436.8940124511719 436.9100036621094 436.9100036621094 436.9320068359375 436.9179992675781 436.9330139160156 436.9209899902344 436.92498779296875 436.9309997558594 436.9119873046875 436.9129943847656 436.9159851074219 436.9209899902344 436.91400146484375 436.9209899902344 436.9309997558594 436.94500732421875 436.9280090332031 436.9309997558594 436.927001953125 436.9200134277344 436.93798828125 436.9219970703125 436.9330139160156 436.93701171875 436.9639892578125 436.9419860839844 436.94000244140625 436.9639892578125 436.96099853515625 436.9739990234375 436.9989929199219 437.01300048828125 437.0150146484375 437.0039978027344 436.9960021972656 437.00299072265625 436.9880065917969 436.9469909667969 436.9320068359375 436.90899658203125 436.90301513671875 436.90301513671875 436.87200927734375 436.8940124511719 436.88800048828125 436.8949890136719 436.8999938964844 440.8970031738281 440.8890075683594 440.8760070800781 440.7749938964844 440.77899169921875 440.7330017089844 440.7090148925781 440.69000244140625 440.64898681640625 440.63299560546875 440.6050109863281 440.5920104980469 440.5780029296875 436.79400634765625 436.8080139160156 436.7919921875
441.4469909667969 441.427001953125 441.3580017089844 441.30999755859375 441.2869873046875 441.2919921875 441.2900085449219 441.23199462890625 441.1919860839844 441.2019958496094 441.1549987792969 441.0889892578125 441.0950012207031 441.0780029296875 437.1860046386719 437.2200012207031 437.2590026855469 437.25 437.25 437.2510070800781 437.2330017089844 437.2090148925781 437.114013671875 437.09698486328125 437.1080017089844 437.1109924316406 437.093994140625 437.1319885253906 437.1159973144531 437.10699462890625 437.125 437.1099853515625 437.11700439453125 437.11700439453125 437.1189880371094 436.4949951171875 436.468994140625 436.4590148925781 436.4440002441406 436.4280090332031 436.4289855957031 436.4209899902344 436.4200134277344 436.4230041503906 436.4079895019531 436.3710021972656 436.33599853515625 436.3280029296875 436.29998779296875 436.27801513671875 436.2449951171875 436.2380065917969 436.2099914550781 436.2019958496094 436.1719970703125 436.1730041503906 436.1719970703125 436.17498779296875 436.18499755859375 436.1910095214844 436.19500732421875 436.18701171875 436.18701171875 436.18499755859375 436.1619873046875 436.1709899902344 436.1650085449219 436.1889953613281 436.20001220703125 436.2250061035156 436.24798583984375 436.3070068359375 436.3599853515625 436.3699951171875 436.4070129394531 436.4620056152344 436.48699951171875 436.5249938964844 436.531005859375 436.61199951171875 436.6180114746094 436.635009765625 436.6789855957031 436.635009765625 436.7279968261719 436.75299072265625 436.7569885253906 436.74700927734375 436.77301025390625 436.75201416015625 436.77301025390625 436.7640075683594 436.79400634765625 436.7980041503906 436.7850036621094 436.8160095214844 436.8110046386719 436.8059997558594 436.8349914550781 436.84100341796875 436.88299560546875 436.8919982910156 436.89898681640625 436.9079895019531 436.9129943847656 436.9330139160156 436.89300537109375 436.9259948730469 436.89898681640625 436.9169921875 436.9179992675781 436.9159851074219 436.9200134277344 436.9330139160156 436.9309997558594 436.9150085449219 436.9309997558594 436.9540100097656 436.9339904785156 436.9469909667969 437.51800537109375 437.45599365234375 436.92401123046875 436.9150085449219 436.95098876953125 436.94000244140625 436.95001220703125 436.9599914550781 436.9580078125 436.95001220703125 436.98199462890625 436.98699951171875 437.0159912109375 437.0580139160156 437.0880126953125 437.08099365234375 437.0469970703125 436.9800109863281 436.9339904785156 436.9460144042969 436.9440002441406 436.9280090332031 436.8900146484375 436.9020080566406 436.92498779296875 436.8869934082031 436.9049987792969 436.9070129394531 436.8999938964844 436.8869934082031 440.8630065917969 440.89599609375 440.89801025390625 440.80999755859375 440.7650146484375 440.7439880371094 440.7229919433594 440.6960144042969 440.66400146484375 440.6579895019531 440.6390075683594 440.6130065917969 440.5840148925781 440.5589904785156 436.8179931640625 436.82501220703125
441.52899169921875 441.49798583984375 441.4930114746094 441.5 441.4540100097656 441.4389953613281 441.4100036621094 441.37298583984375 441.3609924316406 441.32598876953125 441.27801513671875 441.27099609375 441.2330017089844 441.1839904785156 437.1319885253906 437.18798828125 437.2080078125 437.2099914550781 437.2200012207031 437.1700134277344 437.1679992675781 437.1619873046875 437.0950012207031 437.052001953125 437.05499267578125 437.0469970703125 437.0369873046875 437.05499267578125 437.0480041503906 437.07000732421875 437.07501220703125 437.08099365234375 437.0610046386719 437.0799865722656 437.0849914550781 436.4679870605469 436.47100830078125 436.4849853515625 436.4570007324219 436.447998046875 436.4519958496094 436.4440002441406 436.4419860839844 436.42498779296875 436.3999938964844 436.3869934082031 436.3450012207031 436.3320007324219 436.3080139160156 436.27398681640625 436.260986328125 436.239013671875 436.21099853515625 436.1960144042969 436.19000244140625 436.1600036621094 436.1659851074219 436.17999267578125 436.1910095214844 436.1700134277344 436.1759948730469 436.1830139160156 436.18499755859375 436.1659851074219 436.1780090332031 436.1730041503906 436.18499755859375 436.1889953613281 436.1960144042969 436.2300109863281 436.23699951171875 436.3089904785156 436.35198974609375 436.385986328125 436.4219970703125 436.4389953613281 436.4840087890625 436.5060119628906 436.52301025390625 436.5830078125 436.5769958496094 436.6449890136719 436.6730041503906 436.6929931640625 436.7309875488281 436.760986328125 436.7569885253906 436.75201416015625 436.7560119628906 436.75 436.7699890136719 436.79400634765625 436.7879943847656 436.7980041503906 436.8160095214844 436.822998046875 436.82000732421875 436.80999755859375 436.8269958496094 436.843994140625 436.8489990234375 436.88800048828125 436.88800048828125 436.906005859375 436.906005859375 436.9259948730469 436.90301513671875 436.9150085449219 436.9119873046875 436.8869934082031 436.89898681640625 436.9200134277344 436.9259948730469 436.9209899902344 436.9429931640625 436.90899658203125 436.9049987792969 436.92999267578125 436.9330139160156 437.4530029296875 437.52301025390625 437.4930114746094 436.9460144042969 436.94000244140625 436.9389953613281 436.9230041503906 436.9679870605469 436.9639892578125 436.9739990234375 436.9779968261719 436.98699951171875 437.00201416015625 437.0360107421875 437.12298583984375 437.2070007324219 437.177001953125 437.0790100097656 437 436.9469909667969 436.9460144042969 436.94000244140625 436.9429931640625 436.9280090332031 436.89898681640625 436.9219970703125 436.9100036621094 436.9209899902344 436.9150085449219 436.93499755859375 436.9049987792969 436.9010009765625 440.87298583984375 440.9119873046875 440.8819885253906 440.81500244140625 440.7659912109375 440.74798583984375 440.7070007324219 440.6730041503906 440.6520080566406 440.62298583984375 440.6099853515625 440.5880126953125 440.5719909667969 440.5719909667969 436.8320007324219
441.427001953125 441.4320068359375 441.44500732421875 441.4570007324219 441.4989929199219 441.4840087890625 441.5060119628906 441.4930114746094 441.4460144042969 441.4469909667969 441.3900146484375 441.3630065917969 441.3590087890625 437.1029968261719 437.1199951171875 437.135009765625 437.16900634765625 437.1570129394531 437.1650085449219 437.1510009765625 437.1310119628906 437.14898681640625 437.09100341796875 437.0249938964844 437.0039978027344 437.0090026855469 436.9909973144531 437.02099609375 437.0169982910156 437.01800537109375 437.02398681640625 437.02899169921875 437.02099609375 437.03900146484375 437.03399658203125 436.7659912109375 436.5369873046875 436.49200439453125 436.47698974609375 436.46600341796875 436.47198486328125 436.4460144042969 436.45599365234375 436.4540100097656 436.4100036621094 436.3919982910156 436.3349914550781 436.3330078125 436.32501220703125 436.29901123046875 436.2619934082031 436.2359924316406 436.2080078125 436.1969909667969 436.1940002441406 436.15399169921875 436.1650085449219 436.1830139160156 436.1780090332031 436.17401123046875 436.1719970703125 436.17401123046875 436.1650085449219 436.1610107421875 436.1629943847656 436.1700134277344 436.17498779296875 436.1929931640625 436.2139892578125 436.239013671875 436.2650146484375 436.3179931640625 436.35198974609375 436.3949890136719 436.41900634765625 436.44500732421875 436.45599365234375 436.50799560546875 436.5119934082031 436.5669860839844 436.60198974609375 436.656005859375 436.6570129394531 436.7019958496094 436.7550048828125 436.77099609375 436.7619934082031 436.74798583984375 436.7560119628906 436.74200439453125 436.76300048828125 436.7829895019531 436.79400634765625 436.8070068359375 436.802001953125 436.80499267578125 436.8089904785156 436.81500244140625 436.8299865722656 436.82598876953125 436.8389892578125 436.82501220703125 436.8869934082031 436.9049987792969 436.9049987792969 436.9070129394531 436.9129943847656 436.9209899902344 436.9280090332031 436.9100036621094 436.8940124511719 436.90899658203125 436.927001953125 436.9110107421875 436.947998046875 436.91900634765625 436.8970031738281 436.92401123046875 436.9729919433594 436.9440002441406 436.9389953613281 436.95599365234375 436.9519958496094 436.93798828125 436.9729919433594 436.9209899902344 436.93798828125 436.9639892578125 436.9849853515625 436.99200439453125 436.99200439453125 437.00201416015625 437.02899169921875 437.0299987792969 437.4840087890625 437.1669921875 437.0690002441406 436.9989929199219 436.9630126953125 436.9590148925781 436.9259948730469 436.93499755859375 436.9360046386719 436.9389953613281 436.93499755859375 436.9129943847656 436.9320068359375 436.9280090332031 436.9389953613281 436.9330139160156 436.8970031738281 436.85198974609375 440.9200134277344 440.9020080566406 440.8710021972656 440.77801513671875 440.7439880371094 440.72900390625 440.7019958496094 440.677001953125 440.66400146484375 440.6369934082031 440.6099853515625 440.593994140625 440.5780029296875 440.5360107421875
441.2619934082031 441.31201171875 441.3009948730469 441.32501220703125 441.3789978027344 441.3890075683594 441.4209899902344 441.4700012207031 441.51300048828125 441.51300048828125 441.510986328125 441.50799560546875 441.5150146484375 437.0409851074219 437.0820007324219 437.0780029296875 437.1130065917969 437.1050109863281 437.1189880371094 437.1050109863281 437.1000061035156 437.09698486328125 437.0799865722656 436.93798828125 436.9429931640625 436.9549865722656 436.9700012207031 436.9729919433594 436.9700012207031 436.9800109863281 436.9830017089844 436.97601318359375 436.989013671875 436.9960021972656 436.9989929199219 437.0069885253906 436.5270080566406 436.52801513671875 436.4930114746094 436.4809875488281 436.4700012207031 436.4750061035156 436.46600341796875 436.4549865722656 436.4119873046875 436.385986328125 436.3819885253906 436.3389892578125 436.3169860839844 436.31201171875 436.25201416015625 436.2640075683594 436.2279968261719 436.1929931640625 436.18701171875 436.1619873046875 436.1470031738281 436.1520080566406 436.1600036621094 436.16400146484375 436.1889953613281 436.1860046386719 436.1709899902344 436.1210021972656 436.1709899902344 436.1470031738281 436.1730041503906 436.1809997558594 436.2340087890625 436.23699951171875 436.28399658203125 436.3039855957031 436.35198974609375 436.37701416015625 436.41400146484375 436.4429931640625 436.4779968261719 436.5010070800781 436.51300048828125 436.5570068359375 436.5929870605469 436.6449890136719 436.6759948730469 436.6910095214844 436.72198486328125 436.7659912109375 436.7640075683594 436.7510070800781 436.7449951171875 436.75299072265625 436.7720031738281 436.7460021972656 436.7640075683594 436.78399658203125 436.8070068359375 436.8089904785156 436.8009948730469 436.8139953613281 436.802001953125 436.82000732421875 436.8240051269531 436.8340148925781 436.8479919433594 436.86199951171875 436.8789978027344 436.89599609375 436.9020080566406 436.8890075683594 436.9110107421875 436.9200134277344 436.9049987792969 436.9179992675781 436.9209899902344 436.9129943847656 436.9280090332031 436.9100036621094 436.9230041503906 436.9049987792969 436.9320068359375 436.93798828125 436.9410095214844 436.9519958496094 436.97900390625 436.9630126953125 436.9620056152344 436.95599365234375 436.9419860839844 436.989990234375 436.98199462890625 436.9849853515625 436.9849853515625 436.989990234375 436.9880065917969 436.9530029296875 436.92498779296875 437.05499267578125 437.0199890136719 436.9800109863281 436.95098876953125 436.947998046875 436.9360046386719 436.9389953613281 436.9440002441406 436.93798828125 436.9440002441406 436.92999267578125 436.93701171875 436.9440002441406 436.9320068359375 436.90301513671875 436.8949890136719 436.885986328125 440.8399963378906 440.9129943847656 440.885986328125 440.82598876953125 440.7669982910156 440.7550048828125 440.72698974609375 440.68701171875 440.68798828125 440.64898681640625 440.6260070800781 440.60198974609375 440.5849914550781 440.5669860839844
441.14300537109375 441.16900634765625 441.2130126953125 441.2349853515625 441.2179870605469 441.2820129394531 441.3179931640625 441.3630065917969 441.3800048828125 441.406005859375 441.42498779296875 441.50201416015625 441.5419921875 437.00299072265625 437.0419921875 437.0690002441406 437.0469970703125 437.0400085449219 436.968994140625 436.99700927734375 437.010986328125 436.99798583984375 437.0039978027344 436.94500732421875 436.9150085449219 436.9179992675781 436.89599609375 436.906005859375 436.9330139160156 436.9519958496094 436.9549865722656 436.9469909667969 436.9070129394531 436.9320068359375 436.9599914550781 436.9289855957031 436.58099365234375 436.5329895019531 436.531005859375 436.489990234375 436.49700927734375 436.4840087890625 436.4779968261719 436.4590148925781 436.42401123046875 436.3940124511719 436.3710021972656 436.3330078125 436.3299865722656 436.3160095214844 436.27801513671875 436.25299072265625 436.2380065917969 436.2099914550781 436.1830139160156 436.1390075683594 436.1549987792969 436.1520080566406 436.1650085449219 436.1610107421875 436.1730041503906 436.1549987792969 436.1610107421875 436.15301513671875 436.16900634765625 436.1650085449219 436.1549987792969 436.20098876953125 436.22698974609375 436.2550048828125 436.2829895019531 436.3169860839844 436.3489990234375 436.34698486328125 436.4079895019531 436.4280090332031 436.46600341796875 436.4679870605469 436.5429992675781 436.56201171875 436.593994140625 436.625 436.67999267578125 436.68798828125 436.6960144042969 436.7430114746094 436.7539978027344 436.7690124511719 436.7300109863281 436.75201416015625 436.7650146484375 436.760009765625 436.7539978027344 436.7850036621094 436.7929992675781 436.79998779296875 436.8110046386719 436.8080139160156 436.82598876953125 436.81298828125 436.82501220703125 436.8269958496094 436.8420104980469 436.8500061035156 436.8599853515625 436.86199951171875 436.87799072265625 436.885986328125 436.8919982910156 436.8940124511719 436.8999938964844 436.89898681640625 436.9209899902344 436.9289855957031 436.9230041503906 436.92498779296875 436.91400146484375 436.91400146484375 436.9440002441406 436.9280090332031 436.9360046386719 436.9519958496094 436.9630126953125 436.9639892578125 436.97900390625 436.9800109863281 436.9590148925781 436.9460144042969 436.99200439453125 436.97698974609375 436.9729919433594 436.9750061035156 436.9800109863281 436.95001220703125 436.9549865722656 436.94500732421875 436.9750061035156 436.94000244140625 436.9419860839844 436.9429931640625 436.947998046875 436.9309997558594 436.9320068359375 436.9440002441406 436.9490051269531 436.9469909667969 436.9360046386719 436.93798828125 436.9179992675781 436.9119873046875 436.90301513671875 436.88800048828125 436.87200927734375 440.875 440.8819885253906 440.8689880371094 440.7969970703125 440.7799987792969 440.7430114746094 440.7300109863281 440.6889953613281 440.6579895019531 440.65399169921875 440.635009765625 440.59100341796875 440.56298828125
